1.249592484608731506e-02,-9.992523678472833293e-01,3.658629817074488672e-02,9.997807744384215045e-01,1.310055680154388960e-02,1.633335467072392216e-02
-7.907243926171970694e-01,-6.121612142245485000e-01,3.685474093145972053e-03,6.119917623276807106e-01,-7.903306573685622283e-01,2.904367171064849498e-02
9.633501671838915481e-01,2.682221265692893430e-01,-3.653245874083793903e-03,2.681739804048069442e-01,-9.626808415404435326e-01,3.644603633902571138e-02
7.129052750958305706e-01,7.012564958278509897e-01,2.322886088766201989e-03,7.010538964601202849e-01,-7.127718607018574959e-01,2.190225672607865742e-02
-9.794259432366894114e-01,2.014764557081708263e-01,-1.149171485005355195e-02,2.017220032943390917e-01,9.790620784944631394e-01,-2.730713901199501026e-02
9.744982444861419735e-01,2.235763704498343052e-01,1.915145085642685346e-02,2.223922522635579657e-01,-9.736539223092000039e-01,5.039569133420559316e-02
4.666061124196557719e-01,-8.837748449508332493e-01,3.493936583205718704e-02,8.836219299115519732e-01,4.675219848224207997e-01,2.520870260620944672e-02
-9.125416507278044653e-01,-4.089383346758506121e-01,-6.097058267393586257e-03,4.083941268235864452e-01,-9.119249587868797358e-01,4.008873554439112974e-02
8.130976864929703729e-02,-9.963366356337559626e-01,2.649584903727420990e-02,9.961619504822676330e-01,8.210237572455149346e-02,3.034086867162253537e-02
-7.049986766203611976e-01,-7.090372261534808596e-01,1.559095545876028159e-02,7.091894481765534941e-01,-7.046476074424672387e-01,2.284898073529798013e-02
-5.517464903235996809e-01,-8.339921439926898383e-01,5.737087594452689419e-03,8.324549507279463967e-01,-5.502833392035362259e-01,6.486140303399576257e-02
-8.330148290638933473e-01,-5.524049182031370853e-01,3.057941962559245289e-02,-5.530916880358842658e-01,8.328273482408187212e-01,-2.209508198178644633e-02
-8.267251282988286043e-01,-5.625869309082239811e-01,4.637608279109159924e-03,-5.625941278533628243e-01,8.267331816611445117e-01,-3.060152852192147589e-04
6.616097002446604813e-01,7.486954044495996996e-01,-4.156676434630001554e-02,7.493613430955541332e-01,-6.581656949081601260e-01,7.263260645251524983e-02
-9.073063532097992434e-01,-4.146887417101167705e-01,6.948689749884728872e-02,-4.190527485787961526e-01,9.053725533919291246e-01,-6.852250340680068885e-02
-7.479905045965217214e-01,-6.636186995656909726e-01,1.097390633194124387e-02,6.633673774083157504e-01,-7.469720610112698944e-01,4.445742524020920849e-02
-8.987143497681869819e-01,-4.381231303119836329e-01,1.899052938635078375e-02,-4.385322093919428732e-01,8.980068776770911976e-01,-3.568121313048105980e-02
-9.243906626044520181e-01,-3.813268736927942770e-01,9.576966606503620888e-03,3.814420442964577274e-01,-9.239575003773107253e-01,2.836378570380051339e-02
-5.619725979725213039e-01,-8.263778412975463228e-01,3.586729067579852437e-02,-8.267266246567825938e-01,5.597559244621310715e-01,-5.653665282936817110e-02
9.346745862002779903e-01,3.550415234648657270e-01,1.813655223812114456e-02,3.534575856107517455e-01,-9.335495974019699661e-01,5.960607657645156099e-02
9.978405494136480813e-01,6.435747116918134891e-02,1.312836054414409995e-02,6.400312495508686528e-02,-9.976153920590467017e-01,2.582885059111062268e-02
6.962897374115707416e-01,7.172906424295591998e-01,-2.597567820704553901e-02,7.175125575468438432e-01,-6.965447125446542209e-01,-1.092331759162727027e-03
9.367879005660090241e-01,3.496483157178502665e-01,1.320926450639033946e-02,3.487705340382889485e-01,-9.361322124112184673e-01,4.489538364602777692e-02
8.692190312438867750e-01,4.944247693228485674e-01,-1.556664217810489834e-03,4.936444332399627655e-01,-8.676614708955691091e-01,5.898089058782912675e-02
7.220292259296928750e-01,6.918624581271519691e-01,-3.686971974955528678e-04,6.904212678551080451e-01,-7.204906120098809597e-01,6.489800381346373659e-02
5.889831931794662356e-01,8.079717173115577022e-01,-1.674819920862697514e-02,8.081381757138562660e-01,-5.889384335012719518e-01,8.013145384207037009e-03
7.063324236798791400e-01,7.075654422710384583e-01,-2.111047517933933859e-02,7.073465900613468138e-01,-7.043281461991526271e-01,5.985535899357632278e-02
-7.835048842706013872e-01,-6.210216317765080429e-01,2.126568103199996326e-02,6.213802925981282144e-01,-7.828974089223792454e-01,3.095446774359861958e-02
6.909258185891847814e-01,7.225599965530533630e-01,2.299053257574676032e-02,7.228360729905300985e-01,-6.909914130092188467e-01,-6.235281160654268170e-03
-8.316856508483209121e-01,-5.548101087772459028e-01,-2.201638870444594734e-02,5.534076478934725207e-01,-8.315036036412147835e-01,4.839144949976170035e-02
9.849031265074158492e-01,1.715508994143361554e-01,2.315427187473854606e-02,1.710195187070763234e-01,-9.849928567994973294e-01,2.326792373988030918e-02
9.697288659204306160e-01,2.436930663090048910e-01,1.547953596173960895e-02,2.427728451818107480e-01,-9.689906614805818830e-01,4.602655326822670950e-02
9.009877060340538701e-01,4.324662906686515540e-01,3.455518789980589756e-02,4.301329846821551617e-01,-9.008379006284255031e-01,5.896348259551729282e-02
6.999391637990941550e-01,7.141562565249452987e-01,-8.124545925865650151e-03,7.134304865514560223e-01,-6.986085856150624496e-01,5.443330748608702502e-02
-9.047594979497386447e-01,4.223583617402329460e-01,-5.498786355045662266e-02,-4.248014151575940645e-01,-9.041878250139258055e-01,4.458850498381208144e-02
-5.804118446109465257e-01,-8.142967109596018771e-01,6.554170862362766053e-03,8.139837515275208935e-01,-5.799188585993091394e-01,3.353460436709672365e-02
-9.249386924700467860e-01,-3.800228898779635656e-01,-8.427238017381471352e-03,3.792105397327189542e-01,-9.240374600328064014e-01,4.851947043960578437e-02
9.570196990534097781e-01,2.886088041367536605e-01,2.860513587581650294e-02,2.865361611725087965e-01,-9.561518237857214997e-01,6.058645237807223222e-02
9.987782722407784197e-01,-4.400374132565298274e-02,2.248629914126668364e-02,-4.479968096190319743e-02,-9.983394564710228458e-01,3.621212833920156582e-02
9.882805095075652968e-01,1.524116983318941076e-01,8.503454536518023285e-03,1.523455837577222249e-01,-9.882953161182755908e-01,7.949292307899818652e-03
-9.691751235177634705e-01,-2.448872856044046753e-01,-2.701476084726308832e-02,2.428137170046746618e-01,-9.679854101236071706e-01,6.360616811446800911e-02
-1.274771920028966166e-01,-9.914262563052822497e-01,2.869745332863684814e-02,9.911086960256060285e-01,-1.262176656689434351e-01,4.210289224632425553e-02
7.599922063553918861e-01,6.492453186843369917e-01,-2.987243621697609902e-02,6.495560831454182393e-01,-7.571862829926991889e-01,6.888996803949584691e-02
7.852597689728356700e-01,6.191615192811055213e-01,2.471492310736725460e-03,6.172973481102180804e-01,-7.831929568323660051e-01,7.451695367007392379e-02
9.412158068480174222e-01,3.372619770469958977e-01,1.916151814934362665e-02,3.355403209514062346e-01,-9.399565867553653087e-01,6.240439111978204889e-02
-9.441382935544911925e-01,-3.295479407292463137e-01,-1.018530866824612002e-03,3.290279996445709676e-01,-9.428134920079527248e-01,5.332255374288094596e-02
-1.533578286254981271e-01,-9.866866912102296716e-01,5.413639984226209512e-02,9.879232617648875392e-01,-1.518631932069207380e-01,3.074409557660012782e-02
9.533522020641910233e-01,3.017843780581508928e-01,6.765203575143151002e-03,3.015385703809818629e-01,-9.531315215933728879e-01,2.479502203458571266e-02
9.125491142612176532e-01,4.084537864518232864e-01,-2.048458918883510477e-02,4.089347440542756562e-01,-9.119618416786156034e-01,3.313569717709041740e-02
6.927638931057711336e-01,7.209434425941384506e-01,-1.785331872364590705e-02,7.211605161700819222e-01,-6.926297242645049757e-01,1.384106146857572162e-02
